# 3D point list with one line of data per point:
#   POINT3D_ID, X, Y, Z, R, G, B, ERROR, TRACK[] as (IMAGE_ID, POINT2D_IDX)
# Number of points: 425, mean track length: 3.823874567141208
42432 -5.137222340566747 -1.1896629019930165 6.6784351315400095 0 0 0 2.469982611956998 5 808 15 851 66 478 44 832 7 878
44248 4.104093287654521 -1.109566440419891 5.884498091011035 0 0 0 2.250984974667279 13 482 38 322
44455 -0.2462288365081686 -1.1009379176149308 5.8684275586165215 0 0 0 0.8542779760070371 14 928 72 553
23702 1.5253710612563651 -1.3804176675079902 5.376766642188231 115 112 105 0.435006403924612 2 810 58 459 6 712
41891 -2.0000024524930824 0.2079658920648758 1.4799293066659873 0 0 0 0.8251680115328478 9 908 67 964
11072 -2.8785176305226905 -2.113796787538801 5.13115412961491 120 129 84 1.5452610292107496 75 184 43 283
45357 3.037462440046181 -0.3560218847765246 4.188870210072552 0 0 0 2.264441769643649 37 1129 55 983 9 681 46 1044
35084 -4.64347302935078 -0.981524283986926 6.782563007303231 82 95 52 1.6355857149933322 12 780 22 990 59 1223
43000 -0.16220965916456043 -1.7245709886840495 5.542842589018489 0 0 0 1.5444899093300648 37 398 54 305 70 219
43546 -0.3494949397608782 -0.517938078747432 5.959134973182377 0 0 0 1.5938556771403372 47 962 52 826 58 1080
44253 -0.9368480592333253 -0.02942180329769248 2.846872477369243 0 0 0 1.9739790880276402 13 1139 38 580
45362 1.38998514000563 -0.4919844504621333 5.830259360012479 0 0 0 0.3949066028051917 37 1177 55 1069 36 1141
35734 7.009241132917677 -1.0346550526332445 4.423113157561952 38 37 35 1.5567105733672268 46 684 41 727 67 465 65 631
46007 -0.6223330721596042 -1.3597351974349037 6.692314466231236 0 0 0 0.18199151404661595 21 560 50 623
45908 0.6959863062303643 -1.4581593462622753 5.476177968761944 0 0 0 3.2520778865204365 4 524 56 468
14882 0.8569277796172504 -1.1589758309113498 5.776903716807138 140 135 131 1.2163746109055111 72 508 36 753 50 604 11 388 8 538 41 652 58 689
35635 0.9396069374676883 -1.5603303004218243 5.3597965038179485 0 0 0 2.06232441669969 2 498 40 384 36 471 43 200 74 164
43551 4.997441133424855 -1.6202099537200059 4.270025542032402 0 0 0 2.5488397218172514 46 379 61 240
34626 0.9389111214883791 -1.1580805922577828 5.765037012721099 0 0 0 1.239293462561225 5 561 41 663 12 478 47 433
44899 1.1835020790766995 -1.514172362532941 5.340429951947492 0 0 0 1.747789857756634 2 625 41 449 43 194 56 267
14080 0.0847828656800861 -1.019385786706879 5.935269139300942 85 88 88 2.1531629570546666 56 933 64 808 14 1012 61 661 65 892 67 623 71 742 47 568 31 884
44800 1.3311090760129085 -0.23484967747773935 4.090282168166142 0 0 0 2.59465015482243 20 897 59 1552 56 1437 58 1195
45173 -2.674314290559309 -1.1210044248558446 6.711457538771194 0 0 0 2.0316298409961675 47 654 72 632
25561 1.2552198884626056 -1.4262038279015474 5.30737403589583 163 160 153 1.9116848254222603 11 126 12 182 28 422
5015 -0.0871994319298367 -1.6636972985892315 5.689403514535194 0 0 0 2.0573600313974647 31 392 49 307
46107 4.570547839281065 -1.8643870951463661 3.867227436056166 0 0 0 0.6609857332603123 25 328 60 380 6 493 33 440
43552 1.2735501023492342 -1.1983075474945568 5.734563042542756 0 0 0 1.8095947970262154 61 544 69 392 25 559 46 542
41195 -5.406534205040215 -1.3990561970352944 6.3783077202816045 0 0 0 1.0203741985033339 58 782 29 731
38466 -3.9170070401920545 -2.1947224295037326 2.9638276028798796 0 0 0 2.393244154799205 74 92 75 77 43 166 44 41
28193 0.9515478587864676 -1.7650766024404203 5.319413709868765 0 0 0 1.0782525456303784 22 144 56 64 59 81 4 237
43553 5.431756711291446 -1.127343731774367 4.4613875105910905 0 0 0 0.3773442534802813 46 581 18 542
41196 1.9839713127796679 -3.726511391939755 8.31962888640738 0 0 0 1.923329140875322 53 287 65 230
28293 1.534824264028554 -1.61332922108237 5.234972303603685 79 67 69 2.1044723867891375 12 2 15 239 56 102 31 88 29 253 13 147
7747 2.2674423493058224 -0.24604640610255424 4.483454755983397 172 189 117 0.03873559643607089 35 1422 12 1260
45915 1.7000526764325885 -1.0218238854157402 5.268059963026094 0 0 0 2.842357853930581 4 875 56 746
35200 1.0548809407558 -1.5513080798568128 5.334225941739182 0 0 0 1.9429537763109592 5 192 19 328
25941 4.114272679556762 -0.693578244922849 5.189815369189078 6 31 24 0.852849099755265 37 973 28 771
41202 1.2104168051799278 -0.5719313653301772 5.666536353258941 0 0 0 0.49761757537462775 65 987 7 1111 2 1531 61 826
41409 6.36089330191353 -0.5919335540759865 5.291891949999486 0 0 0 1.792256974885999 39 824 57 425
20656 -0.851240770783815 -1.1362433322107308 6.316023278293559 0 0 0 0.6813811757904862 50 681 72 584
30114 -0.3917325356965982 -0.7724455491500489 5.850463396144506 73 65 63 1.1679428897624693 19 1041 39 848 25 924
19841 0.8835096892100773 -1.4519504169415325 5.397210157031336 150 150 146 1.4903362438434333 56 427 31 412 59 437 12 219 14 512 49 265
45375 -2.364319847703413 -2.0348772517164573 4.7801225025167 0 0 0 1.4418626248135014 32 105 43 245
45924 -2.3813000928084316 -2.1898916121726804 5.384185000632576 0 0 0 1.3419356292923783 21 65 68 196
33393 -3.042477184751409 -2.7190665664792633 5.312362936662724 179 198 201 0.9780294027754813 43 105 62 66
2574 0.32473375092465856 -0.12476517470340558 3.745976739143951 174 162 148 1.5541431688913456 27 2135 59 1701
43567 4.5645157899002085 -0.4197778849669576 4.405449452184795 0 0 0 1.795835191973163 46 990 61 793 9 670 37 1086
31036 1.238008524027199 -0.7870580853968046 5.728339645883785 0 0 0 1.2772078006098149 23 880 27 1479 9 485
41210 0.14611782370905305 -0.8041985413799221 5.956971280370157 0 0 0 2.37989761316385 39 814 5 877 27 1591 65 961 67 716 51 926
34644 0.05819055638103688 -1.784995514637493 5.5196776623001345 0 0 0 1.3563919200270937 17 309 27 639 46 67
44818 -3.519533058969818 -1.160805432675728 4.4167544644670516 0 0 0 1.4895451018346306 1 440 29 610 54 436 30 699
45927 -2.486879841453776 -2.1258887724744753 5.509395844789802 0 0 0 0.268094224694987 21 132 68 234
28309 1.180232741819663 -1.6028035235757265 5.313824910023408 127 116 112 1.4645563903808523 14 344 43 143 2 414 42 332 4 450 58 249 35 424
33396 -3.090549081321926 -2.661342327366574 5.280446566921399 0 0 0 1.9563308664989794 43 126 44 33 75 56 59 48 15 205
23330 1.1410551403080917 -0.6872312493080909 5.693187755143883 78 86 97 1.1930550481379167 55 977 61 797 35 1152 73 459
2577 0.838134738979828 -0.14482021998419944 2.9399192781458447 213 192 174 1.142234648658045 31 1634 59 1715 17 1444
43570 2.115924403206995 -1.0792570569305764 5.384497594643708 0 0 0 1.929177163039758 46 620 60 704 6 820
23024 1.4937666166792793 -1.5943621561137822 5.346612826491789 166 168 167 0.6448591097215197 10 390 63 95 53 647
41213 2.846033504605338 -0.4174548550765962 4.925931671534108 0 0 0 1.787560703556568 51 1035 67 801 65 950
35212 -0.12013822702919998 -1.5403155158261006 5.584573662559568 0 0 0 2.0694045230902485 11 123 25 333 63 263 52 415 47 180 41 412
3979 1.0237213066366861 -2.0539277205430295 5.335979407652435 183 183 175 0.49345013824608785 27 120 52 68
45485 3.509455656118374 -0.5186562247221438 3.9040710570005555 0 0 0 2.1410616838955536 28 766 38 420
45386 -2.0979680411788033 -1.9865007561054076 4.82056166393963 0 0 0 0.37009265890490517 32 114 35 180
34647 -0.8513478919579099 -1.2913370871828969 6.106998497914256 0 0 0 1.9109607401420263 14 815 21 532 18 675 72 438 12 497 31 758
44920 -4.267428218930004 -1.5103395390984846 7.264704388357838 0 0 0 2.2074976367886605 3 535 75 561
44821 -4.65581398364605 -1.3780280265852531 5.622756989144659 0 0 0 0.3600592056801477 30 711 49 688
45930 -2.133646368383956 -1.6664633718942063 5.933239390073831 0 0 0 1.8153307258378084 21 282 68 407
43573 2.2017304148595986 -0.949851105334697 5.439993063317195 0 0 0 2.702849832699338 46 745 60 734 33 875 18 717
33300 -0.6705272665187251 -0.45174005165035397 5.649341276917886 63 62 52 1.9033628848645945 34 1595 3 1296 75 1121 20 774
25956 4.300477301982467 -2.2014881583499584 3.260438735860856 161 163 162 0.4374661300105196 4 126 19 50
36229 6.260055256640073 -0.5544482641493954 2.6520951145226754 103 128 129 1.6387941447992767 46 795 67 555 65 668
36130 4.329557813426588 -1.5194717353649971 3.0683434438302752 78 78 76 1.9937144566191523 61 164 33 477 60 409
5311 -0.5181264709824921 0.04675708537672471 2.4500556247593788 207 192 173 0.042269933187537745 51 1441 13 1157
41217 0.3465415988180382 -0.5837846567483974 5.892050480613315 0 0 0 0.6744918267998752 67 835 63 667
10398 -5.439059810545868 -0.8284177309842472 6.521818595759611 40 55 31 1.6363614964951452 75 901 74 835
30944 -0.9473721461732547 -0.584490080026042 5.315673694904915 0 0 0 2.014917266489525 51 1117 22 1075 38 429 13 958 28 884
45933 -0.7537409255807358 -0.9311650830122479 5.018193159681614 0 0 0 1.2750424278605021 21 632 68 732
15114 -1.1407856002073995 0.31130751771581183 0.9177632859151688 231 232 226 1.0171821163007915 72 1086 11 884 68 1186
25387 -0.15627711018079332 -1.554613951409018 5.619162217986571 86 83 84 1.9712612901032671 70 321 12 254 58 498 55 478 27 1074 10 496 51 363 11 109 28 378 17 527 72 251 13 322 33 644 41 404
41219 -0.666421930395858 -0.590231168930876 6.07051720604984 0 0 0 2.3294801430938152 51 1159 67 845
43586 1.7786934616717034 -1.4137740008241697 5.249743821710971 0 0 0 0.8237916865670196 46 413 47 113
45402 3.391288527166665 -1.255867293870897 5.086183084281405 0 0 0 0.694181056536897 28 479 63 234 24 98
44836 -3.643698111154183 -0.9978944739547553 6.751997283403791 0 0 0 1.269250763292673 10 951 53 730 70 708
33414 1.463946742557701 -1.4452191743363814 5.247262832680588 0 0 0 0.4059183341558805 25 422 69 186
43687 -0.5164077096764351 -0.298024779660797 4.637928371611623 0 0 0 2.0329168642308084 43 1173 49 1439 15 1260
43588 0.24174016687067165 -1.3762382510724254 6.027861313861704 0 0 0 1.937806698970401 46 439 47 344 14 702 73 15 51 558
23042 -0.7742643147601597 -0.9350440100911864 5.472497920708615 10 34 36 0.3368915976273641 49 767 63 546
41236 1.873116811851755 -1.2257299709149512 5.235712038292109 0 0 0 0.9638048143096933 47 258 62 686
30963 1.070541288606849 -0.6304569985869123 5.745308168339809 0 0 0 1.9763558631017348 27 1632 37 1092 63 598 36 1045
35235 1.4542915390177158 -1.372961532538804 5.37313600623089 0 0 0 1.858002575281441 37 634 13 349 39 432 42 485
45508 -0.3450483506642408 -0.1013162514390637 3.939587059561241 0 0 0 1.047031403467439 35 1440 75 1300
45409 5.972378420022824 -0.9855493782976491 4.997902909521954 0 0 0 0.06308148076605655 28 609 63 313
14590 -1.482783363646981 0.43612306957871994 0.08016316792412889 251 252 243 0.7184321603188766 21 1264 68 1265
45952 -0.28013165728091105 -0.08940790462564538 3.514832314890936 0 0 0 1.1599024575336019 21 1059 68 1074
15133 -0.37609588502049535 0.46699649845146335 0.16775678139080558 126 123 116 0.9898074707565507 72 1127 68 1235
36151 4.311030426956315 -0.9815781539248345 2.5920463359126007 46 43 38 2.14811588017436 8 231 65 488 18 410 60 489
5332 -0.6925520256106538 0.09045592961002526 2.1636505033077174 0 0 0 0.30859186717673204 10 1348 51 1479
41238 1.0872625011402013 -1.3300027660188003 5.66943984712346 0 0 0 1.2470949787112735 47 284 62 726
30965 2.429265062790767 -0.4329699964742362 5.094529198200675 0 0 0 2.0159934909460366 72 857 50 842 11 611 13 865
45411 -0.1558322618049344 -1.090426275864906 6.231674981002863 0 0 0 1.384074151125617 28 749 63 512
14592 -1.2109314444428363 0.4775440829448348 -0.029868294280298278 131 126 120 0.865708112447938 21 1274 42 1301
43602 0.16997279223715434 -0.06285155905371231 3.2211582112707378 0 0 0 2.8482562075973905 46 1268 47 1168
39222 1.0344541874002846 -0.7934710204211596 5.762320402079531 0 0 0 2.1908376868769155 72 713 33 947 60 817 56 1007 11 518 23 874
18676 -0.18009456812850644 -0.7614707539496652 5.917029985158575 162 166 160 1.5907684261777184 63 616 47 725 35 1122 16 809
44309 0.16024541250069402 -1.5987197620347662 5.538660937757213 0 0 0 1.5371480031252573 4 289 10 450 13 254
45418 1.3885353769085573 -0.5385632920895924 5.580146682303222 0 0 0 1.908800696089013 63 611 51 1066 71 905 10 1141 36 1099
42500 -0.8465941545929165 -0.7630749835723819 5.601277944566992 0 0 0 1.759164831744064 49 985 66 552 59 1147 74 735
35792 4.399207281552292 -0.4728227364845541 1.978522306455775 0 0 0 2.3520370536646364 61 566 6 717 39 724 33 730
45966 -2.5285905399438215 -2.0529970312901518 5.203259359925527 0 0 0 1.723811547590011 12 38 17 411
35693 4.02912398878241 -0.8054103205197292 2.329729299283782 119 111 100 1.9844165623931227 61 412 65 544 67 389
45425 0.51829882273344 0.10526386507135618 2.332331963575698 0 0 0 2.339083824259539 28 948 63 740
35152 -0.4279983985679383 -1.7180659062711408 5.161767753427523 0 0 0 1.2735258374910923 5 134 38 63
45974 -1.7175045766562902 -0.9370044971034909 5.706077571244405 0 0 0 1.4429387234633702 12 668 17 966 59 1061
45433 0.14958179561359694 0.5629054911174481 -0.2794098391382834 0 0 0 1.9551230066595666 28 1057 63 880
35160 -0.41107996046295 -1.741292596313315 5.630564020290164 0 0 0 2.2054010051616344 19 83 42 373 41 291 6 622
44866 -0.13086548019473335 -0.6733387871887397 5.582285723021991 0 0 0 0.18013366189751873 27 1703 61 798
37422 -1.1709094457594387 -1.3179960910325335 6.236888358183768 0 0 0 2.1131331639482682 66 295 75 447 44 540
42509 4.851669973243365 -1.8473784078074271 2.6473564165606494 179 186 188 1.2820171157162437 33 377 60 327 18 188 6 426 61 81 67 82 65 278
1417 1.912774823929689 -1.663369878077573 5.091267845782227 202 202 202 1.967173299023482 35 252 56 51 31 20
45975 -0.2465412380061102 -0.989594719824901 6.3344981222718175 0 0 0 2.3413735719100623 12 689 17 910
39784 4.52707441276203 -0.05458660476172119 2.6270142582010076 177 179 176 1.5344349945037037 64 1036 39 1010 25 942 33 913 6 884 60 756
44871 -1.0806036509555106 -0.7971601325599291 5.619511977326876 0 0 0 2.1474119157906393 1 556 7 942 54 532
34805 1.618013710075228 -0.5040231258894371 5.858908614346582 0 0 0 2.0676929174097887 20 796 56 1258 31 1287 62 1301 7 1180 40 1017 48 830
14052 -0.05992976299432698 0.1403506288631217 2.040406380235011 0 0 0 1.5595913268645387 37 1389 46 1373
41266 5.115689782700864 -0.4708421012798003 4.9803175165832 0 0 0 0.8035142051444806 46 988 65 877
174 2.1435192476100142 -1.451459319701997 5.115126710734393 245 246 240 1.9211312417692328 10 471 15 246 35 469 27 635
30178 -0.9527212766830339 -0.622197930917859 5.274374881437067 0 0 0 1.8819800480083178 19 1259 39 995
45439 1.2214658775327862 -3.5532367301693526 8.368013745791748 0 0 0 1.152807498962427 28 41 51 47 50 79
43082 0.8945138533942657 -0.9101425422169239 6.142366302392768 0 0 0 1.825487850109154 53 928 58 896
12263 2.07965274639341 -3.165469125833275 7.550896949671503 213 220 228 0.34912800876191064 23 137 28 130
1990 1.1771237808180282 0.07796142279632798 2.526677565680117 208 223 142 0.09198844650764579 56 2612 59 2464
29621 2.2719394565630835 -0.6384496848695084 5.554475010839891 0 0 0 1.3498142232400343 19 946 25 902 33 948 65 928 60 810 9 572 37 1048
19348 1.4798756963859494 -1.530944057223248 5.252530499192129 70 68 65 2.143286341967803 29 307 31 156 59 155 56 178 62 444 58 257 12 55 74 111 22 239 55 459
45991 -1.8101324642115073 -0.4751944207248004 5.197785565190037 0 0 0 3.3850705299736368 12 1001 17 1266
35718 1.240104472156889 -1.2548107824661898 5.583229482087747 0 0 0 1.6074049417252576 27 1177 72 413 29 532 33 778 4 697 25 512
41277 0.21779079811125468 -0.9873713511654929 5.881649496729519 0 0 0 2.353113770146174 46 716 56 941
44341 -0.5611199706650546 -0.7362739589442808 5.988894126584769 0 0 0 1.0399637202509484 14 1265 47 780
30189 0.8329785038649461 -0.5409074796262529 5.709157408510751 0 0 0 0.6391671496086198 2 1573 43 1130
40462 7.030560187849701 -0.8267795495621899 -0.7583303643360679 149 145 144 1.9075783560182267 1 75 54 68 26 151
19916 1.452355513463699 -1.6064349230289692 5.2067297165426005 199 196 191 1.661080457722464 13 145 36 396 9 79 10 328
45450 0.3454548472956659 -2.1521591360711456 5.33967032941505 0 0 0 1.8698256159728333 28 165 51 90 68 232
29628 5.859700106845539 -0.12009410260818615 3.2097410382658635 111 105 86 1.4488578515632693 19 911 64 1011 39 966
44889 2.9197928077587294 -1.85910502315635 4.910886606632359 0 0 0 1.8391935013759553 21 164 62 30
14070 0.03349430136836263 0.3655891452746539 0.9437129435877573 137 136 132 1.4853496067047007 8 1036 23 1297 72 1074 11 818
37445 -4.942082667408555 -0.9106112703645816 6.227708927830735 0 0 0 2.0967945868014826 66 564 75 838 43 908
33467 0.5065811171000066 -1.5052409091980137 5.467676797855449 0 0 0 2.014987474180726 27 1015 37 565 41 445 68 434
44154 5.575388365649746 -0.9013485714154005 -0.0643219211776045 0 0 0 1.489301360595634 6 500 64 484
2648 0.3936283566160006 0.0060664546862775484 2.9622189666880936 225 213 196 1.8090863902615457 31 1925 17 1654
38554 -0.6825051529253626 -0.09163205637606564 3.2989640443511727 0 0 0 1.0643314506796733 8 967 37 1325
43641 0.8763469802252806 -1.4295344238734917 5.625546587882318 0 0 0 1.122705866128128 49 341 12 282 15 452 52 430 74 285
2549 -0.8949052140536746 -0.1656883321173682 3.690668316794072 148 132 117 0.9312900043400051 49 1478 31 1558 59 1615
41284 0.6436393248719756 -0.622990737907918 5.877038014205481 0 0 0 2.117530400095295 46 1012 56 1198
192 0.39827213350393453 -1.5230509185154522 5.5021513949383625 120 115 109 1.3474791504059584 59 474 17 459 10 502 27 1018 44 185 46 310
44348 -2.080317055048132 -0.6986104659460765 5.412178279310039 0 0 0 0.10531742949190187 14 1341 47 849
45457 -0.2587182647108153 -1.3906539390051798 5.7437142851268925 0 0 0 1.7538534178219554 28 510 51 510 17 624
25653 1.4111616351999388 -1.2122277009481992 5.420218079885664 149 155 155 2.0627219605164537 7 609 12 356 62 761 15 500 35 805 30 600 20 113 54 411 40 591 55 656 32 380
46199 -4.410039294678442 -1.6520537094287586 6.980510920123864 0 0 0 1.3702901097182865 5 574 70 425 22 621
46001 -0.0877412678990883 -2.1789406197078645 5.531850674774611 0 0 0 2.429265909915351 21 134 50 172
38557 -0.36766342358475657 0.2632414879619257 1.4972212049968674 0 0 0 1.4760423028163445 8 1034 37 1481 51 1736 5 1361 22 1451
43644 0.8947931272068652 -1.3639910496068615 5.67532261317157 0 0 0 2.146320452269482 43 385 49 392 7 565 40 548
25657 5.424347416853465 -0.765855432413703 3.7175936164856833 33 39 29 1.2613502960989411 11 263 28 600
46203 -3.9277685599923085 -1.3493692491307534 6.1784443072520805 0 0 0 2.3324378539877593 5 636 70 490
41291 2.909213837607694 -1.5669869377207468 4.954848161160232 0 0 0 2.3713075289279444 46 370 55 361 41 432
45464 1.1723078170277679 -0.6555530334264511 6.084398439030305 0 0 0 0.9897824382827995 28 854 51 1034
35832 1.9860134490569208 -0.9454597519313075 5.514292018846213 0 0 0 1.773530866081643 73 236 46 747 12 575 23 773
46105 1.4315493418801926 -0.3774027611496361 5.582294909469038 0 0 0 1.9647307185227496 2 1733 47 952 24 727 27 1863
46006 4.078355291782181 -1.1091726500663233 5.462192228313524 0 0 0 1.571613750640907 21 539 50 536 23 676
33475 -0.2767664183066179 -1.6378154995719756 5.602807149658174 0 0 0 1.5410706624821429 47 63 42 444 71 429 27 993
43748 -2.960082351816912 -2.008827206969202 4.753718514340407 0 0 0 1.125617270917818 40 282 1 324 54 272
2656 0.9731769352343238 -0.026437919955219717 2.7023719374189104 133 160 91 1.7805667659887374 56 2094 59 2021
38562 4.088948344599386 -1.8453689177000572 3.5798048631583157 0 0 0 0.08105514983555542 16 131 72 24
43649 -4.097344408560158 -1.7340379393407441 6.75889417357498 0 0 0 1.6570774420620866 32 452 62 808 15 614 5 471 12 413 59 792 42 609 31 727
35846 1.2489168755505535 -0.9574497277922862 5.717785803571131 0 0 0 0.2159861103421704 2 1146 37 881
46119 -0.4323005952757004 -1.5150488646921731 5.640866273355173 0 0 0 2.371958113653702 4 243 64 394
25573 1.461908046414174 -1.3860195049426138 5.4359442338623 0 0 0 1.569214394424775 51 425 36 583 16 444 10 571 70 402
33489 -0.15079609411215475 -1.5411607952166557 5.622191650617805 0 0 0 1.0364468252161978 40 478 60 576
2670 1.2570752126246338 -0.0017129217678716092 2.6462782649083683 171 187 88 1.5647870091096916 59 2145 49 1889
43663 -6.142462461951234 -1.1885231900624353 5.027081132366925 0 0 0 1.6083665331673267 43 725 49 791
41306 -0.22349202638041168 -1.5097185415840226 6.137510088262699 0 0 0 2.165629465325148 66 120 75 305 3 127 34 145
214 1.632551266445556 -1.4182210388082046 5.241907796319483 223 223 215 2.1655736372471517 62 572 27 868 14 502 58 365 10 535 52 373
45479 3.52228893554322 -0.8084528747871766 3.8861315968741157 0 0 0 2.119924834337253 28 607 38 298 11 306
27861 1.4952903248696443 -0.4072776565159207 5.546778844157811 0 0 0 1.813592093753688 66 855 27 1817 41 1066
43122 6.882616231089358 -0.2865071977923428 -0.668107811625262 136 146 148 0.08198243526797394 26 643 48 347
44913 -3.673642373999374 -1.8627951370730083 3.133561980855243 0 0 0 1.4171733515466531 1 251 43 287 54 256
37469 -0.10791225226977942 -0.24033272112480086 4.399538072891559 0 0 0 0.9261113866728884 66 877 75 1201 44 1421
42556 6.693873052083037 -0.6739934621196527 -0.6735258930303594 177 184 192 0.9739893470845505 30 8 26 301 48 48
46022 -0.32851353245320686 -1.1937306179867047 5.829514417255186 0 0 0 1.1856911216800539 2 962 6 855
38578 -0.688346893463225 0.29212912171123073 1.293591522407306 0 0 0 1.8130838804092861 72 1054 68 1153 11 829 16 1093
43665 -0.03585679195843284 -0.8313055944276647 5.849242475485371 0 0 0 0.23828925129949147 43 859 49 905
44372 1.3971337290335184 -1.472849766315095 5.279738885563708 0 0 0 1.4370837140684731 15 324 51 319
45481 4.991309351907411 -0.8977891443256574 4.603393289829357 0 0 0 1.3861900991453542 28 628 38 332
46024 -0.49315486098718747 -0.7933486715761313 5.995474060359733 0 0 0 1.6483297547343534 2 1312 6 958
4932 1.7549016739363348 -1.4361750539105291 5.204084853218173 152 153 149 2.368840636222014 35 558 62 529 56 272 47 51 52 338 27 786
43667 -5.014382512769023 -0.8894107019290494 5.706794110869605 0 0 0 2.408106215310998 43 891 49 1029 44 920
2575 0.2592136926552369 -0.11491164806071914 3.83892041184038 207 195 179 0.3867025549087044 31 1638 59 1707
44374 0.4368725750380419 -1.4661663536676208 5.634115885896845 0 0 0 2.2884835293622148 15 464 51 427 63 319 22 406
45888 1.9823730064356626 -0.7108142303572206 5.1522632853626735 0 0 0 0.42948522149354346 21 760 27 1417
25135 1.9803639513947822 -1.2781316858688394 5.476529585940389 0 0 0 0.494057814924255 12 289 73 24
35408 0.5672911645935558 -0.8425415504487727 5.874586564007503 0 0 0 2.0363247855619435 22 876 25 824 5 830 28 804 39 755
4175 0.3286263362074416 -1.3143591934410648 5.739181922815142 89 142 154 2.1797095382608047 10 689 2 892
45681 2.4563929330853096 -0.5470605753279905 5.464021413709558 0 0 0 0.8887821937140687 7 1118 40 972
30222 1.9444132931407243 -0.29962250521541794 5.142100352360441 144 140 99 0.902466268342878 64 1211 69 1219 39 1096 33 993
35309 7.532176916010573 -0.8036625224218965 3.5102129011449006 138 148 138 0.8199286927136751 19 644 61 547
45582 -5.517166209597959 -1.693591766931228 7.09732202104357 0 0 0 2.570242113710773 7 713 58 732 40 663 59 900 30 697 49 694
40396 -0.4367881236433934 -0.7801230863025682 5.902022451711735 0 0 0 2.073043138249271 65 989 14 1209 9 465 39 846 73 483 27 1657 16 803 36 995
45483 5.230716051208547 -0.8572240123368681 4.667974840697303 0 0 0 1.3947720317860326 28 677 38 360
46025 -0.8968960370471513 -1.6007840723014457 5.788634202054294 0 0 0 1.28178513096558 10 493 47 207 2 495
44375 -0.3291223847033072 -1.5019108629602715 5.771038111612005 0 0 0 0.8013867663706149 15 495 51 435 63 338
45484 4.309820571275276 -0.8872609904434611 4.902355917145042 0 0 0 1.0298673271633967 28 690 38 349 16 630
43127 6.440673239011197 -0.02552083425881198 -0.6987142118692592 0 0 0 0.1546868006381258 26 779 54 286
42561 7.992069991408635 -0.3740975827025046 -0.8953897926979271 158 171 177 0.20868489608408525 1 154 26 313
46027 -0.8986368019306764 -1.565287173650295 5.777544300334322 0 0 0 1.4058241549190076 10 536 47 221 6 704
35754 7.167099399897776 -0.9565745362458035 4.257826434469906 0 0 0 3.20836344728569 8 440 28 508
43670 -4.561611200200582 -0.903852015721431 6.346008661286732 0 0 0 1.1386861386326186 43 914 49 1068
2578 1.0084114645538718 -0.13208301566488284 3.4548312903419944 85 103 63 0.4436017429919056 56 1592 59 1722
12851 0.31075866788042905 -1.8734446773997782 5.46972984505989 160 158 154 2.319702752025201 17 203 55 273 4 2 10 226 31 85 27 442 59 114
31139 -6.688770814215803 -0.7556580073711044 4.119978897800472 0 0 0 1.5562722563301508 15 933 58 858
41412 3.0167066542827228 -0.5234526319615033 5.480718925170797 0 0 0 1.5791017751625074 39 926 57 569 64 1043
41313 -1.8943243563785856 -1.4407204347013798 6.045087259016086 0 0 0 1.0841566568357464 44 487 66 231
15507 2.8036303645364105 -1.608673934939553 5.005032538918861 210 211 203 0.5187654750775786 27 241 50 215
36053 6.706189079518815 -0.943916945949574 4.463713309681144 52 53 46 1.2033596523407777 71 311 60 628 6 741 67 527 65 673 18 606 33 737 9 453 8 477
46029 0.1623876718761758 -1.3903730764536963 5.8646668407740705 0 0 0 0.7915461393987612 10 648 47 313 52 480
43672 0.5871541848313969 -0.757073914035283 5.8558413869108685 0 0 0 1.5115604113662962 43 917 49 959 8 760
12853 1.376568911295664 -2.0006287499820394 5.285443744767898 0 0 0 1.389465117046829 58 48 62 122
41315 -4.755933559601217 -1.7208985431801123 6.898732558342789 0 0 0 1.6598124529090992 44 565 66 289 43 578
20769 4.016510865652348 -0.6483951728174467 5.221213879073954 10 26 31 1.484663634158581 16 761 41 927
35856 1.439744479155505 -0.9107819770079625 5.928441189311265 0 0 0 0.8214493890795933 2 1212 11 479
46030 2.067596999988369 -1.1817077635396267 5.316359669407755 0 0 0 0.0886938075052159 10 719 47 288
35964 1.6826941871835424 -0.4787912782697595 5.403333641566686 0 0 0 1.6900083723990997 63 613 67 826 36 1117
15211 -1.0009895879233706 0.301602284333427 0.8475072123139076 242 240 235 1.736028065683131 21 1152 11 867
41316 -4.6124221764396625 -1.649785492866467 6.8203810230118345 0 0 0 2.553497569548499 44 595 66 306
25683 -0.5745654772161559 -1.2079066931979159 5.6774733141551375 0 0 0 0.9310158324878408 14 793 23 559 53 731
46229 1.0360788205202667 -0.7078447657411746 5.776358245580717 113 118 113 1.884957875580337 41 898 70 784 55 976 68 879 71 851 11 564 46 929 65 959 22 970 69 989 30 736 26 1039 48 807
15203 -2.0742984341617756 -0.37993241348175233 4.1158152393769845 45 48 25 1.6107476832876533 68 1033 29 975
35956 7.425960013358637 -0.5859579173304577 8.42597370506809 98 105 97 1.0702576154065973 38 550 67 817
46031 -0.2533453115517211 -1.1202987108530904 6.2745679588140675 0 0 0 1.757010930022633 10 857 47 553 63 509 50 673 70 619
15212 -1.0510895023427382 0.3076948353467773 1.0367988582442536 248 247 243 0.30400496352100825 11 874 68 1180
46032 -0.25490618209605764 -0.9621929653274699 6.324227716255182 0 0 0 2.572668342325045 10 938 47 635
35759 4.932228974565059 -0.5947244739063138 2.34105716929303 96 96 96 2.479530110513493 46 714 61 532
36231 0.8082403546133969 -1.4217101681100406 5.57746964461957 0 0 0 2.4423286696189384 56 539 59 541 43 358 12 281 17 507 58 507 15 458 22 413 74 290 40 502 20 0
41318 -0.2798989326798735 -1.0449811460531662 5.625486988898437 0 0 0 1.8770218869681734 44 630 66 364 75 500
226 1.4785317137899077 -1.372420265501271 5.342755956527694 116 107 94 2.021826468894627 41 530 7 493 8 323 19 434 18 514 10 568 58 466 71 470 69 231 32 291
44924 -5.4044606600883816 -0.9321337335054156 5.880376246252007 0 0 0 2.2904844443824643 3 675 75 796
46033 -0.8894661873410672 -0.6809102786341643 5.612563371560769 0 0 0 1.9401409915011676 10 1029 47 807 2 1395 5 977
45492 -6.634101442476478 -1.6447792706237607 11.137708986285379 0 0 0 2.5177710140549108 26 1060 52 718 48 826 30 766
46034 -0.9721099537043109 -0.6216665251629568 5.619468863226697 0 0 0 1.3444428365620877 10 1073 47 887 2 1482
15215 0.936760619157422 -1.5187573257921394 5.367657310971674 69 64 60 2.061178781735191 59 323 68 409 2 598 37 553
45493 1.3738778053866243 -1.4778549026958316 5.584025515251736 0 0 0 0.7872324277737761 26 879 40 454
24947 1.6770487998299735 -0.5381082251373955 5.485608669320651 0 0 0 0.9837948790206554 24 590 21 907
43136 5.0524408935836185 0.6551864301300563 -0.16847124145899608 220 209 189 2.108133090386605 26 1191 30 830 48 919
35692 2.1598903344248073 -1.2611237509346716 5.020433268145085 0 0 0 0.8689873450431039 36 604 52 398 9 239
45965 -1.563329637365632 0.4305207692207644 0.06516635460075787 0 0 0 2.531413205389499 21 1263 68 1268
40779 6.45183848214868 0.5649770846000153 -0.4506585845267543 155 154 149 0.97936660546572 1 756 26 1140 30 797 48 882
30506 1.8748345549218095 -1.1754747402429286 5.693006454079462 0 0 0 1.2427394119502986 56 702 70 557
20233 3.4006051497476157 -0.5599375257348127 5.255530846181832 168 183 188 1.5667613899043495 23 977 61 788 67 741 65 902 33 925 41 991 71 787 6 917 8 720 16 823 7 1078
46035 1.7022713215771417 -0.6174525020286256 5.819481819138219 0 0 0 1.1444110245646386 10 1092 47 756
35762 5.43378709244146 -0.7520991617754075 3.1838469135770113 69 68 65 0.7757532534910516 8 419 67 508
45899 -0.45529789537631 -1.6104913465955066 5.675417081397516 0 0 0 1.2909462659949273 4 87 56 442 59 552 2 452
25146 1.124920035142178 -1.383727592738608 5.336662811865224 0 0 0 0.31581337389647357 14 530 51 405
45692 1.9650873492419585 -0.33481210414803203 4.911163555965031 0 0 0 1.7025935228929643 7 1208 40 1041
45494 -2.4836614470301916 -1.030817818790075 7.221307455890551 0 0 0 1.332537833133461 26 1052 40 865 48 820
45867 0.22669065866510094 -0.6494585143842999 5.796028039342513 0 0 0 1.8428902620742733 8 823 18 942 61 821
35594 4.108001798287792 -1.6034793310485942 2.915324498502305 131 129 130 2.3111584501712503 61 131 67 127
40780 6.742506647760729 0.6064679625118437 -0.7634959993949233 136 137 131 0.954432014476341 1 762 54 696
41322 -1.894681821990796 -1.0058558594729734 5.502666703271081 0 0 0 1.8436238044157933 44 734 66 415 74 570
28699 -1.1763286041467498 0.24942065249557688 1.6113975008691943 243 240 235 1.3256426638883168 53 1028 29 1098
38873 3.240920130646484 -0.7035275196356159 5.129164725136133 0 0 0 0.5832540162341747 25 795 57 388 4 1047
43960 1.3709162632545224 -1.4602340738281927 5.287110880873247 0 0 0 0.8729595305298583 27 861 37 593
13141 0.5115142109235394 -0.4756012415720686 5.933313918061273 0 0 0 0.12413604518695824 15 1228 43 1177
29808 -3.2090977034493804 -1.044188400712925 3.807749475125127 75 87 25 0.7617992281984975 39 19 25 117
45069 4.003733632588295 -1.70201098702578 3.1436660814690947 0 0 0 0.08408880344868946 68 125 72 21
15115 -1.2147073215690873 0.3156250356476623 0.9230231437958238 252 249 244 0.8921221031762441 21 1166 11 891
35661 4.855247908153501 -0.928637906961761 2.357645193093864 113 98 86 0.7681198026367634 8 239 65 477
45637 2.549038262229368 -0.6518044116597538 5.409270185781889 0 0 0 1.7859631351890566 7 1016 52 683
35364 3.478052008959617 -0.8967514890565369 5.283554309247177 0 0 0 1.7169690125089123 11 414 65 791 67 612 50 620 13 546 8 592 36 817 37 888
46051 0.1434247532043688 -0.08873614012793353 3.432978244430551 0 0 0 2.253749144923373 10 1289 47 1151
4959 2.724633503773992 -1.9290635673214827 4.9292247839079995 223 222 218 1.3791822506258193 19 160 64 320 51 105 8 100 68 291
46258 2.4839669829194895 -0.43991118266645945 5.186363424949816 0 0 0 2.916417726927172 4 1288 25 974 69 1039 19 1055 57 661
25505 1.6167075761227745 -2.1817733263280545 5.3505639489461325 227 233 233 0.8219783624074901 55 191 28 203
35336 0.7347198944779362 -1.1030790042585565 5.808648073296694 0 0 0 1.60328284839619 19 669 36 798 50 637 64 716 2 1045 39 553
4517 2.148830476661392 -1.266653762703312 5.373254718998329 32 56 44 1.515954704555193 62 674 51 484
45510 0.44450239090086474 -3.227989197147541 7.530805171477179 0 0 0 1.5925060421761041 23 24 28 27
14691 0.3112694886087006 -3.1378371817780875 7.5872752796604335 0 0 0 0.9697976340685712 23 68 28 83
43153 0.29565809451394787 -1.388891386370438 5.817476513302684 0 0 0 1.7083768261353331 74 359 35 764 51 516
45883 -2.0464334591309212 -1.3564936966699432 6.330090067623506 0 0 0 0.19922517243530102 21 526 27 1400
35610 3.7143718276398667 -1.4989436492644768 3.61887610261928 53 51 52 0.6401843406883165 61 202 67 190
40796 7.325746832890991 -0.8642866377296002 0.9859076199089027 215 212 205 0.30821250869366495 1 287 54 133
30523 2.654191079432106 -1.0957491104264363 6.0433246135101015 0 0 0 0.4584958743411466 52 568 73 197
34108 -0.2753193542673487 -1.049887055516056 6.005097578845141 0 0 0 1.9352591834823027 42 774 14 1010 47 567
4695 -1.4759749006114922 -0.7419935441648688 5.703445698334679 72 76 53 2.900330997211496 27 1811 51 1037
45787 1.2511113580123672 -0.5628980279864603 5.594338424970727 0 0 0 2.2794534168625664 15 1108 35 1252 31 1222
35514 0.5486523938463578 -0.4849375280260625 5.910431309907467 0 0 0 1.6914537487172794 17 1259 49 1377 69 1334 74 973
30130 1.7049531613292257 -0.6374992193752027 5.456714930426737 0 0 0 2.447487740392868 20 612 23 954 67 764 22 976 35 1167 39 884
40677 6.918370211677632 0.33948087407025396 -0.5815269769020364 90 88 86 1.7892881400052953 1 628 54 526 48 725 26 967
30404 1.0270772179765206 -1.4861256684323263 5.373003273031209 63 61 54 1.3411094424649541 64 472 62 583 46 358 35 606 2 694
33797 -1.883164677765952 -1.1579389317112465 6.122076068379297 104 120 120 1.5792126666733104 43 702 44 698 75 572 35 958 74 560
13251 2.7898512643435773 -1.2544909088139151 4.909643271863735 125 123 102 1.1540925936287865 63 225 38 190 55 533 11 151
38884 1.1371671708566404 -0.6943578378229732 5.735202238371298 0 0 0 0.9071926631173667 36 986 74 793 63 579
43971 0.7492251921668698 -1.3111731855673687 5.789262750307992 0 0 0 1.6317475530230876 27 1206 10 699 24 134 37 692
33698 0.8725849021065518 -0.6335495885308661 5.833709344067221 33 64 56 1.1902690039508272 15 1075 61 819 74 861 36 1052
43832 0.9455130368034307 -0.49455490369867444 5.872632818138958 0 0 0 0.31906750402918427 41 1041 72 885
4952 0.6118168682697731 -2.2364674323717395 5.536920626312315 206 213 221 1.0923050033879684 55 174 21 104 10 93
30387 -3.681633778555525 -0.17943203670717367 3.3998759822082074 29 29 21 1.7260804425140817 64 2118 39 2122 25 1928
45648 2.8432021363272444 -0.9635838925349887 5.107366989551076 0 0 0 1.930346086742007 7 705 48 699
14829 -2.69835743438454 -1.6101797745192168 6.626322347701691 11 13 12 1.2127108538383693 17 729 68 522
44833 0.9044294991614897 -1.3724166899414492 5.51780987065884 0 0 0 1.105586397629689 10 609 53 733
42476 1.4642194377799544 -1.644503700476102 5.244010508198327 137 129 130 2.0748137430824993 22 164 37 458 61 259 59 77 35 344 62 325 41 350 42 292 29 239 14 289 4 444 74 68 40 306 27 498 68 355
33411 0.9586008581211097 -1.604030956732151 5.336826821256572 0 0 0 1.464210145608466 4 420 27 698 2 394 58 285
43585 1.3803687643312499 -1.4062705063068361 5.309997832988885 0 0 0 0.9092061210107355 47 166 10 546
45401 2.97856305153408 -1.2492807714101204 5.055475543628172 0 0 0 0.7189457640079637 28 478 63 252 37 684
35128 0.2179832476543264 -1.4595197824020476 5.737267148728959 77 72 55 1.944957227131822 4 507 64 480 51 451 25 405 27 1135 52 435 19 394
24855 0.5955816377921445 0.038211025669616705 2.703598920522909 0 0 0 0.5277400289945284 42 1161 50 980
33807 0.3627824849974701 -0.7388378051412635 6.049743818943504 0 0 0 1.0780326012639336 13 842 20 568
13261 1.564283885201982 -0.7322561413502261 4.2877518217755535 0 0 0 0.1381596915881595 13 586 59 773
43981 1.3964041321758667 -0.6328129916477157 5.92394149108959 0 0 0 2.3062739283259157 27 1622 37 1098
41485 -1.1210657257163203 -0.5190051988107118 5.555663931400128 0 0 0 0.8031782941970382 36 1186 65 1083 9 612
44549 -0.6344277587862425 -0.8461990117237144 5.587905910955767 0 0 0 1.6882474728878443 10 933 23 815 14 1121 21 752 22 871 28 801 50 738 27 1571 64 928
34276 2.5054445719597367 -0.26613608169043695 4.866267728154658 0 0 0 0.34724874135323397 57 788 18 976
30397 -3.6414455473074345 -0.14301384534264036 3.1775215018601957 152 149 134 1.0830413934517829 64 2130 39 2160 25 1907
40670 6.797705559778269 0.33850219043965774 -0.7496950630509449 188 197 195 0.5079318585584012 1 595 54 511
20124 6.387471166182022 -0.8341594763399873 3.7331830964007233 120 122 120 0.8573628269484523 46 724 18 583
45658 -3.1170334430153197 -1.8055554458690564 4.15777376631856 0 0 0 2.0310536284931615 7 203 40 292
30554 2.81031238316428 -0.6488871540380938 5.411142806965316 2 18 23 1.6914515127779948 11 515 51 881 27 1432 57 441 4 1128 68 857
40827 6.985628039938295 -0.4022925955472172 -0.7642691440232493 138 142 151 1.8436711837298696 1 192 30 67 26 479 48 172
45815 -4.083900054865734 -1.313438213772113 4.826050307977723 0 0 0 2.251669153094701 15 640 54 404
34789 2.1664331621905784 -3.757320948135382 19.671115384079904 0 0 0 1.0607846990909209 20 302 56 840
44963 3.4403086209236124 -0.19631910544639328 3.4845449615333863 0 0 0 0.35017028661420724 19 1002 57 728
34690 -1.54511977996418 0.4301081534453289 0.13238726500425502 0 0 0 0.2521578978992491 21 1259 42 1284
14144 2.7497309406249064 -3.519833678510828 8.462335352859755 248 252 253 1.4492226434070776 23 150 72 17 21 55
42606 6.555658291954953 -0.5747064788074095 -0.5653510448398892 161 168 176 0.8880277082120552 30 68 26 439 48 154
46072 -1.7873946486079595 -1.7378108270774164 6.03897202394627 0 0 0 1.2420383902490195 2 287 47 194
25526 -0.18711673504349388 -1.7246336715312722 5.5437170840655225 0 0 0 0.9926801091344427 36 352 53 484 64 281
33541 -3.4683438385918173 -1.3769721123722944 4.624976010881999 70 88 13 1.1716585815205947 15 577 43 529 44 470
43715 2.5684835336208987 -0.9817459955451716 4.78317676655572 0 0 0 1.3705439819674439 41 696 55 704
44129 -1.647696755290366 -1.2650531576249573 6.458690128123622 0 0 0 1.2692615693443738 7 792 74 543
2623 0.7657362608034298 -0.09554924913318448 2.7134185372524606 202 185 162 1.1251314111268913 31 1790 59 1874 17 1549
43985 -1.0409232090472589 -0.7694020420486772 5.763401044365177 0 0 0 1.7162874851680563 37 995 23 882 38 382 68 895 13 867 22 979 27 1727 53 865
2893 0.1178329936396437 -1.6878143034192628 5.528399728856085 205 199 193 1.7747868717099342 27 801 2 247 46 132 17 376
45819 1.6792636570411879 -1.9000421320421208 5.178430998240382 0 0 0 2.4908151733478596 8 106 21 167 27 138 13 80
41233 1.9455064925647483 -1.3963435431749016 5.171831935045178 0 0 0 1.3286293226232906 47 85 62 540
10414 -5.626017268761561 -0.3177444863130643 3.3001122816623796 177 165 130 1.9973382576303824 44 1085 43 1027 75 994 74 788
45406 2.2331337414356214 -1.2893568220005147 5.534350421788245 0 0 0 0.1308174416232188 28 523 63 341
43986 -0.553973871251239 -0.7342748557348091 5.995243611977636 0 0 0 3.1848554622591356 27 1742 37 1041
2894 0.4947022081956659 -1.5847879292341465 5.455137311897505 164 159 153 1.621354585859904 31 316 56 287 59 362 5 226 23 346 46 248 8 211 39 299 12 142 44 100
29834 -2.392213013592962 -1.2389838279160257 4.549235287853841 97 94 75 0.6119750663774388 64 263 39 151
45095 0.5704340995590421 0.38896970737693326 0.9383518853931624 0 0 0 0.4747448447379591 68 1150 72 1062
42738 2.885204393027495 -1.1020470573468657 4.927188977405542 0 0 0 0.43131996203480083 21 502 16 555
1646 1.0254353266756657 -0.8625667476541208 5.7504703439065095 183 185 192 1.534898738676519 43 771 37 932 31 920 8 670 21 737 36 891
30402 1.2290553825279429 -1.5389680147675626 5.299665829607205 58 54 51 1.8245078331507936 64 452 4 490 19 350 29 324
40675 6.526746055005154 0.3166299013284305 -0.5076734706291467 96 97 97 1.4400694769727813 1 604 54 522 26 981 30 632 48 748
45663 3.2070960453148762 -1.0377166542203422 5.006272743621949 0 0 0 2.7486554190725903 7 593 40 612
46036 0.003728386818672996 -0.6677641129167005 6.4335560395519655 0 0 0 2.5646987716702205 10 1109 47 863
36040 -2.27302548166415 0.30338570885991534 0.5669697654240897 239 236 229 1.099783621230048 9 978 67 994 65 1185
46214 -1.822680760405804 -0.8219945813333126 4.927219962838095 0 0 0 1.5638798231143092 5 794 70 642
25875 0.4648176396785067 0.33019681345184554 1.288062091144095 0 0 0 2.1037772070103142 63 773 21 1131 13 1301
5122 -1.325411458987358 -1.2622731359876724 6.215631931836317 123 135 135 1.5493627015923996 5 620 13 610 38 206 41 589 27 1403 68 688 9 208 14 878 2 955
45830 2.935467808692305 -0.8613910996185018 5.553638866724673 0 0 0 0.7205331873363058 8 630 21 709
43869 -4.25883853473677 -1.7930309440860286 6.442080666912299 0 0 0 1.5193540141321489 29 541 42 554
15299 1.2675403471776183 -1.5139284827109267 5.301222173801238 0 0 0 2.914376684840036 31 214 43 182
36052 0.24800538503811242 0.9816637236215788 5.51810163929612 179 175 164 2.0142049919535054 61 960 67 1026
41139 3.922044112902117 -0.057546975369043886 3.52688541314463 0 0 0 2.3267606539070083 60 811 64 1115 39 1063
30866 -1.9954003840803458 -1.3486371786614484 7.378822085955238 0 0 0 1.314076925122191 49 748 62 996 7 850
46226 -1.437467512591124 -0.23557363311687213 3.7954563467466644 0 0 0 2.2722296058351743 5 1179 70 885
41512 1.201389755653584 -1.3368246474369558 5.572833116955806 0 0 0 2.7289288139710597 35 723 71 527 21 419
420 2.4076249041456856 -1.8323176375431172 5.028612411668675 186 185 180 1.9157115773645905 27 88 52 51 10 180
41373 -0.5123035844407164 -0.5283608078993305 5.738158552130319 0 0 0 1.3629640683233344 17 1221 49 1309 43 1123 40 980 41 1003
46215 -3.423449282045907 -0.7184229659527982 4.274069933176317 0 0 0 0.31504845547529914 5 832 70 635
35500 0.06905951931454536 -0.5853506155620017 5.997656366367647 0 0 0 1.1005587163111312 52 781 49 1256
45773 2.466584327340518 -0.8939933504823679 5.383104896863384 0 0 0 1.5017867296883107 15 631 35 978
45674 2.235925663530677 -0.7025813463384607 5.548053012822951 0 0 0 1.860434179918396 7 981 40 888
25128 -3.3434768340033014 -0.7977112819059621 6.214697061724254 0 0 0 1.84341804037382 36 1122 21 868
43870 -3.649985565926156 -1.634144333330073 6.229269377284308 0 0 0 0.579647134664151 29 571 42 591
13051 0.5598724713583363 -0.8530307042321164 5.853369496629307 181 179 180 1.5435921980698297 20 439 53 919 29 819 65 929 4 1105 57 222 33 940 54 523
44284 0.07808382556515729 0.32020656087200505 1.3172689020863817 0 0 0 0.26419382205392955 13 1318 22 1480
2778 0.7566917181337368 -0.6549405264227254 5.788158598866141 7 16 13 0.831305549300908 27 1645 20 629
46227 -4.231795514338591 -0.2538422278645458 3.7754229095296763 0 0 0 0.5576078105498514 5 1190 70 854
5135 2.4624271302225305 -0.8061283427573218 5.4461529579961026 151 167 171 1.5161793864959272 13 647 23 848 11 470
30827 -0.6275135705231565 -1.057039978251154 5.975450394666209 0 0 0 1.6632274541137413 37 835 51 773 5 718
8 2.5323011774951016 -1.8908524727892912 4.98955529690127 224 225 219 2.3798929649630036 35 54 27 39 10 142
46088 0.4758812968648253 -1.1171130107415463 5.851153808082795 0 0 0 1.7630291049936158 2 1035 47 480 52 580
45547 5.894208770498212 -0.39243676937661154 3.6265548912505277 0 0 0 1.4228779551363802 9 663 65 793 18 761 67 688
43190 -1.2062422995609074 -0.8603205962713227 5.803502361773928 0 0 0 1.638493043652483 74 688 75 741 66 509 43 853 59 1102
42497 4.654237034363977 -0.5951084760217653 2.317926629086909 37 47 31 0.06718889699553628 18 582 67 511
35789 4.412657616617123 -0.9627822423773499 5.038034983383363 59 74 74 1.727135995256053 41 760 8 535 67 551
45963 -1.3375778774020677 0.37389516004439594 0.35724627160909683 0 0 0 2.0470254174683786 21 1209 68 1233
38519 -2.7027023826781282 -1.6388240919589951 6.451364005936655 0 0 0 2.0646275176673017 17 712 58 624 49 550 47 336 22 506 74 425 44 471 66 208 75 398 42 579 3 297 34 370
43606 -0.8023114069629146 0.020296831514996623 2.595357335680826 0 0 0 1.1879506842927179 46 1357 47 1280
29850 4.338267601935785 -2.1099753647350603 2.7721954802064346 122 128 83 0.2705337610232288 4 108 39 203
45111 -1.0104092584980646 0.4726548339302364 0.024243066825429434 0 0 0 2.1308183555953284 68 1257 72 1152 21 1266
36046 -2.040502091535418 0.37746747246352047 0.316179232172358 230 236 236 1.880936862834983 9 1035 67 1010
15500 -0.7467582593987344 -2.0636031651318985 5.641874182783884 160 161 155 0.1466505128215219 37 290 50 196 27 387
46220 -1.855235283075557 -0.6942989346322478 5.219495169356538 0 0 0 1.2039062593666732 5 941 70 735 22 993 68 906
43863 -2.555329032259964 -1.9286416778008961 5.387998758413078 0 0 0 2.3676878746899837 29 309 42 329
41506 2.9407867729886368 -0.5280917898566632 5.20052989854127 0 0 0 2.3170754182115734 36 1012 41 1002 70 861
414 2.593406979025531 -1.8201300010973998 4.990354212837871 155 154 149 1.205901636492235 62 84 52 41 27 77
45679 2.6920690795395266 -0.5175594640079766 5.138567596257975 0 0 0 1.497221644303586 7 1101 40 969
41122 2.4627753070349088 -0.27856572268574975 4.9277675125415294 0 0 0 1.8686110418366542 65 993 51 1173 11 674 72 918
43875 -2.4248550712480337 -1.479236164458205 6.358755209320192 0 0 0 2.3036532203533 29 621 37 609 70 453 13 542 23 450 53 548 17 748 18 595 22 588
30832 1.3839418785683038 -0.5790050715492375 5.676501959877347 0 0 0 0.2727613219034825 37 1114 51 1043
46093 -0.9406703294176311 -0.6668920224499916 5.4949654702525415 0 0 0 0.1825314208617277 2 1398 47 816
38108 -2.974311133840319 -1.2872621466710623 6.476909154755943 0 0 0 1.4941343355169163 22 762 52 612
43195 -0.8165677711610033 -0.7620872022878163 5.613540645380743 0 0 0 1.2805458966945602 74 736 75 812
45964 -1.5254012456022632 0.42793571392901375 0.08788881898546497 0 0 0 1.0242533365733435 21 1260 68 1263
44314 0.9369356296550738 -1.135355105724497 5.738143197091284 0 0 0 2.5706588757875246 4 813 10 784
3222 1.0513124068584878 0.05501228283540101 2.538683642440235 85 108 26 1.2073430541228636 59 2321 17 1875
45423 1.5401274390070225 -0.3409379292401231 4.873392660953722 0 0 0 0.6241977170910165 28 897 63 656
4331 0.7282769755472399 -1.6434181154931249 5.4068352543858955 162 158 157 1.3477845400319948 2 333 4 349
44571 -1.153364179693673 0.16064916124040834 1.7884540572762684 0 0 0 0.20665380157844007 10 1389 23 1234
42214 0.4776654431100382 0.324696844511852 1.3209585776541286 0 0 0 1.4657167753867104 8 998 9 891
45680 1.81375779210231 -0.5409205758886163 5.374616937862602 0 0 0 3.2182603139554424 7 1112 40 958
44856 -10.191513528550916 -1.409846026856956 4.8099354922124276 0 0 0 2.583888381345056 1 400 15 754
42499 2.10193813116088 0.07780693172713657 2.9125178073168017 84 75 60 0.9146480184551131 66 1301 75 1833
1407 -0.6376101632391097 -0.4042280958212272 5.3164964222021265 158 143 124 1.3698063603253459 31 1400 41 1046 52 864
41251 0.8491830348556517 -0.52930839931344 5.844604984281314 0 0 0 2.2488834514201415 47 893 62 1289 12 1079 31 1284
159 0.5821202078216301 -1.5810159951347695 5.435171240560531 174 173 168 1.6381558434757515 27 863 12 139 58 384 7 400 2 470 10 438
30163 2.5526177978989875 -0.4655690479404508 4.716335222595887 0 0 0 0.8884289206498321 4 1199 10 1111
35250 1.240250917975424 -1.3044899927681701 5.511387926400631 0 0 0 1.6396845568711584 19 480 23 523 4 649 7 566 50 503
45523 2.807953937435881 -1.2991981895956384 5.058380472660611 0 0 0 0.15203949616180235 23 505 28 446
45113 -1.2900743454652184 0.4529467578091555 0.07385775968244881 0 0 0 2.5937104989036595 68 1261 72 1157
46222 -4.2868443455488245 -0.5093138517547438 4.117630282932602 0 0 0 1.0522110263076978 5 1031 70 734
45115 -1.2098460883089572 0.4878281643837889 0.015698690793769888 0 0 0 1.9043437680034838 68 1270 72 1167
42758 1.5734959227133594 -1.225889241631721 5.476530063427486 0 0 0 2.5184175045014494 13 447 58 554 30 596 54 413 26 914 48 679 59 590
46224 -4.325581002594358 -0.3957709725368847 4.183301683637002 0 0 0 1.979085575888594 5 1139 70 797
5132 0.09077210666535973 -1.073694687047569 5.91994586220296 172 176 177 1.713264437752379 28 735 37 830 68 734 70 614 23 695 11 442 20 284 58 789 51 739 56 893 61 616 72 579 5 679 7 817
43879 -5.997459077042027 -1.366514490871668 5.914924707056975 0 0 0 0.8989424853382129 29 707 42 749
